0.419223 0.98734 0.346234 0 1 0
0.8437 0.384293 0.00266675 0 0 -1
0.49618 0.690009 -9.50307e-07 0 0 -1
-0.00814457 0.504281 0.0344294 -1 0 0
0.00109283 0.917542 0.204367 -1 0 0
0.969273 0.797779 1.00909 0 0 1
0.109394 0.282918 0.994292 0 0 1
0.146429 0.158038 0.00530975 0 0 -1
0.103008 0.16637 -0.00524398 0 0 -1
0.357769 0.249909 1.0127 0 0 1
0.292239 1.00369 0.0460766 0 1 0
0.047773 0.578294 0.012936 0 0 -1
-0.0164571 0.329453 0.751675 -1 0 0
0.992359 0.00400119 0.702763 0 -1 0
0.308062 -0.0111063 0.458242 0 -1 0
0.999642 0.617719 0.897599 1 0 0
0.203983 0.386108 1.00789 0 0 1
0.00235755 0.16698 0.0646795 -1 0 0
0.0446227 -3.35605e-06 0.53099 0 -1 0
0.326745 0.323195 0.988859 0 0 1
1.00883 0.0300638 0.826998 1 0 0
0.941806 0.351186 1.02875 0 0 1
0.0126143 0.41527 0.891916 -1 0 0
1.00889 0.783986 0.369964 1 0 0
0.0031899 0.994394 0.318972 0 1 0
0.45491 0.395921 -0.00439126 0 0 -1
1.01104 0.662712 0.585325 1 0 0
0.323363 1.0017 0.217556 0 1 0
0.280355 1.00939 0.120189 0 1 0
0.09251 -0.00718354 0.443957 0 -1 0
0.801343 1.00899 0.277222 0 1 0
0.654301 0.020697 0.904193 0 -1 0
0.314326 1.00707 1.01299 0 1 0
-0.00804582 0.601039 0.299299 -1 0 0
0.158978 1.01704 0.849796 0 1 0
0.0506175 0.969584 0.00231246 0 0 -1
0.0409829 1.00024 0.229997 0 1 0
0.992927 0.20137 0.176863 1 0 0
1.0052 0.236688 0.464077 1 0 0
0.0315108 0.695016 -0.0057719 0 0 -1
0.306009 0.578688 0.00508175 0 0 -1
0.49419 -0.0171161 0.679841 0 -1 0
0.940473 0.349839 0.00534131 0 0 -1
0.561896 0.993958 0.668652 0 1 0
0.952579 0.00024436 0.167192 0 -1 0
0.0850805 0.435718 1.00754 0 0 1
1.00654 0.657979 0.572901 1 0 0
0.8809 0.71686 0.991643 0 0 1
0.00397684 0.796889 0.900225 -1 0 0
0.0489182 1.01736 0.813183 0 1 0
-0.0154433 0.290214 0.723197 -1 0 0
1.02142 0.517122 0.591345 1 0 0
0.994782 0.653872 -0.0207547 0 0 -1
0.00394935 0.658559 0.431925 -1 0 0
0.347917 0.625512 1.0013 0 0 1
0.189684 0.2191 1.00782 0 0 1
0.0342691 0.550764 -0.0221557 0 0 -1
0.0611877 1.01188 0.0866495 0 1 0
0.789261 0.986256 0.303942 0 1 0
0.448099 0.996446 0.348876 0 1 0
0.390472 1.00474 0.248006 0 1 0
-0.00149649 0.51511 0.901964 -1 0 0
0.149704 0.979229 0.0195104 0 0 -1
-0.00746459 0.57701 0.702137 -1 0 0
0.144306 1.0128 0.90747 0 1 0
-0.00480466 0.304412 0.838622 -1 0 0
0.988235 0.95696 0.688153 1 0 0
0.0143709 0.67011 0.485207 -1 0 0
1.01705 0.129239 0.891773 1 0 0
0.757817 0.667819 1.00297 0 0 1
0.507374 1.01042 0.665603 0 1 0
0.138683 0.0108836 0.883766 0 -1 0
0.0016381 0.630408 0.731139 -1 0 0
0.742385 1.01268 0.871175 0 1 0
-0.00508017 0.208442 0.651131 -1 0 0
0.256461 0.228832 0.997156 0 0 1
0.747594 0.00550556 0.000209286 0 0 -1
0.849663 1.00589 0.316258 0 1 0
0.298321 0.587562 0.996121 0 0 1
0.426355 0.0120466 0.627542 0 -1 0
0.819799 0.00182034 0.888965 0 -1 0
0.995158 0.659214 0.615513 1 0 0
0.994261 0.943456 0.0876324 1 0 0
0.989106 0.683466 0.493595 1 0 0
0.00616011 0.572772 0.674128 -1 0 0
0.585951 -0.00569921 0.0491823 0 -1 0
0.319571 0.995565 0.276403 0 1 0
0.259629 0.00632941 0.98114 0 -1 0
0.978039 0.223266 -0.0132383 0 0 -1
0.989675 0.436409 0.81178 1 0 0
-0.00996958 0.289317 0.46065 -1 0 0
0.25267 0.189436 -0.0117195 0 0 -1
0.492107 0.542877 0.993532 0 0 1
-0.0140232 0.785471 0.155679 -1 0 0
0.888598 0.600588 0.0222739 0 0 -1
1.0069 0.759191 0.972252 1 0 0
0.0988095 0.279769 0.0055471 0 0 -1
0.0122859 0.112854 0.850847 -1 0 0
0.0192231 0.000276231 0.629557 0 -1 0
0.00411942 0.534496 0.0309942 -1 0 0
0.0511737 0.0125519 0.0668211 0 -1 0
0.996684 0.480565 0.150065 1 0 0
0.826848 0.0166215 0.381933 0 -1 0
0.990817 0.213434 0.229972 1 0 0
0.496065 0.013262 0.477506 0 -1 0
0.584328 -0.00225583 0.385988 0 -1 0
-0.00392039 0.856975 0.453193 -1 0 0
0.128252 0.8759 -0.00354947 0 0 -1
0.231175 -0.00239011 0.126605 0 -1 0
0.520906 0.594981 1.01318 0 0 1
0.108761 0.0155619 0.680219 0 -1 0
0.024838 0.820981 -0.013512 0 0 -1
0.639382 -0.00732452 0.448558 0 -1 0
1.00936 0.226968 0.900446 1 0 0
0.419293 0.995262 0.549882 0 1 0
-0.00482741 0.280604 0.650983 -1 0 0
1.0063 0.864826 0.78499 1 0 0
-0.005654 0.694845 0.4341 -1 0 0
1.00539 0.245409 0.906606 1 0 0
0.511251 0.694031 1.00177 0 0 1
0.880548 0.991394 0.831838 0 1 0
0.126232 0.00482126 0.0807012 0 -1 0
0.0678361 0.990639 0.744041 0 1 0
0.955729 0.472244 0.0228972 0 0 -1
0.199001 -0.00839382 0.427999 0 -1 0
1.00833 0.235806 0.394926 1 0 0
0.0552153 -0.00410009 0.301547 0 -1 0
0.95717 0.823861 -0.00438486 0 0 -1
0.998622 0.86271 0.843285 1 0 0
0.990176 0.558021 0.260291 1 0 0
-0.0374916 0.396206 0.318836 -1 0 0
0.6156 0.878021 0.0122454 0 0 -1
0.00393851 0.947091 0.233219 -1 0 0
0.0178951 0.497015 0.0116055 -1 0 0
-0.00595812 0.859793 0.147821 -1 0 0
-0.00886583 0.0799272 0.180666 -1 0 0
0.692471 0.780946 0.0110521 0 0 -1
1.01183 0.748909 0.0459956 1 0 0
0.633943 0.281087 0.00197712 0 0 -1
0.929936 -0.0055312 0.139855 0 -1 0
0.761413 0.331807 0.991845 0 0 1
0.460623 0.128884 1.00585 0 0 1
0.991683 0.946224 0.768427 1 0 0
0.0178654 0.127116 0.833101 -1 0 0
0.693519 -0.00348881 0.914326 0 -1 0
0.205319 0.400628 0.00417514 0 0 -1
0.94679 -0.00813345 0.211419 0 -1 0
0.928057 -0.0011839 1.00883 0 0 1
0.502715 0.595487 0.990308 0 0 1
0.700361 -0.00255851 0.290335 0 -1 0
0.00356433 0.105387 0.245746 -1 0 0
0.00988445 0.414006 0.507047 -1 0 0
-0.018097 0.962324 0.0935356 -1 0 0
0.00318946 0.934341 0.182385 -1 0 0
0.0149846 0.563244 0.554499 -1 0 0
0.54854 -0.00883433 0.4773 0 -1 0
0.992962 0.592939 0.194038 1 0 0
0.00450349 0.232851 0.541654 -1 0 0
0.00759238 0.491329 0.641575 -1 0 0
0.824116 0.983133 0.359489 0 1 0
0.989451 0.511742 0.640823 1 0 0
1.01456 0.967871 0.406035 1 0 0
0.101146 0.455054 0.0170378 0 0 -1
0.855841 0.99379 0.402375 0 1 0
0.389812 0.69307 -0.000269413 0 0 -1
1.00255 0.263498 0.601034 1 0 0
0.115544 0.992909 0.336776 0 1 0
1.00791 0.448174 0.0115938 1 0 0
0.354951 0.176191 -0.00879762 0 0 -1
1.00809 0.672505 0.398375 1 0 0
-0.00206057 0.937162 0.240693 -1 0 0
-0.0123604 0.626039 0.814631 -1 0 0
0.131261 0.741855 -0.0111087 0 0 -1
0.444665 -0.00898433 0.630335 0 -1 0
0.529759 0.976287 0.930172 0 1 0
0.0692945 0.158515 0.00674977 0 0 -1
0.462597 0.882592 0.0198407 0 0 -1
0.516837 1.00414 0.516201 0 1 0
0.488007 0.202294 0.0182421 0 0 -1
-0.00336583 0.545335 0.238111 -1 0 0
-0.0077157 0.270452 0.870757 -1 0 0
1.01476 0.562969 0.0477446 1 0 0
0.808583 0.201617 1.00303 0 0 1
0.985749 0.000602794 0.835373 1 0 0
0.00108581 0.103509 0.775804 -1 0 0
0.987365 0.674645 0.433973 1 0 0
-0.00675815 0.901015 0.126142 -1 0 0
0.995255 0.242036 0.62231 1 0 0
-0.0129267 -0.0104823 0.556573 -1 0 0
0.345887 0.940577 0.0144413 0 0 -1
0.129165 0.988596 0.321329 0 1 0
0.957963 0.00457691 0.298282 0 -1 0
0.000895353 0.112358 0.609633 -1 0 0
0.437694 0.18316 0.00452643 0 0 -1
0.995655 0.0992699 0.217737 1 0 0
-0.00164268 0.457221 0.801504 -1 0 0
-0.0217069 0.944405 0.0936499 -1 0 0
-0.000399675 0.0668527 0.554832 -1 0 0
1.00604 0.105465 0.301997 1 0 0
0.714688 1.00281 0.139518 0 1 0
0.282382 0.00778026 0.270723 0 -1 0
0.194192 0.746238 -0.00698986 0 0 -1
0.84016 0.00412944 0.295585 0 -1 0
0.00441734 0.499004 0.0843648 -1 0 0
0.241334 0.968267 0.610771 0 1 0
0.143184 0.195136 8.98319e-05 0 0 -1
0.794919 1.01527 0.0972666 0 1 0
0.993267 0.268369 0.298052 1 0 0
1.01523 0.914748 0.958046 1 0 0
0.235248 -0.00209932 0.724696 0 -1 0
1.00291 0.347883 0.0731072 1 0 0
0.706797 -0.00599604 0.623694 0 -1 0
0.867328 0.228071 0.994082 0 0 1
0.849842 0.950175 0.0046816 0 0 -1
0.694679 0.643812 1.00227 0 0 1
0.38252 0.0137181 0.444166 0 -1 0
0.757604 -0.0169367 0.534343 0 -1 0
1.00548 0.866294 0.00176158 1 0 0
0.50296 0.488573 1.00739 0 0 1
0.00705124 0.19028 0.843926 -1 0 0
0.618456 0.00930851 0.340108 0 -1 0
0.893802 0.988553 0.398949 0 1 0
0.551627 0.614443 0.00778232 0 0 -1
0.697862 -0.00249293 0.929722 0 -1 0
0.573756 -0.00221884 0.841734 0 -1 0
0.686327 0.987308 0.590006 0 1 0
0.771515 0.153651 -0.00890971 0 0 -1
-0.00715746 0.563946 0.266483 -1 0 0
0.847846 0.388348 0.98844 0 0 1
0.944839 0.000772371 0.715871 0 -1 0
0.808599 0.841663 0.995754 0 0 1
0.000839515 0.0671605 0.708712 -1 0 0
0.995794 0.260088 0.090967 1 0 0
0.838853 0.998584 0.31055 0 1 0
0.248654 0.00700753 0.348261 0 -1 0
0.291381 0.115412 0.00112681 0 0 -1
0.000597053 0.526555 0.903022 -1 0 0
0.0179615 0.836489 0.0160501 0 0 -1
0.0169312 0.797522 0.784724 -1 0 0
0.326011 1.0052 0.239515 0 1 0
0.525052 0.00514099 0.477817 0 -1 0
0.462749 0.202761 1.01473 0 0 1
0.0399344 0.00611988 0.178665 0 -1 0
0.997074 0.896379 0.777154 1 0 0
0.915115 0.282271 0.00650054 0 0 -1
0.521874 1.0079 0.139058 0 1 0
0.0144737 0.0459185 0.940753 -1 0 0
0.670976 0.754103 0.00340051 0 0 -1
0.388664 0.15122 -0.0013445 0 0 -1
0.109178 0.671584 0.0138509 0 0 -1
0.953235 0.662158 -0.000920421 0 0 -1
-0.00419576 0.27008 0.0747834 -1 0 0
0.0550271 0.997606 0.176535 0 1 0
0.434002 0.790077 0.998009 0 0 1
0.775677 0.115858 0.00577384 0 0 -1
0.229684 1.00214 0.588411 0 1 0
0.972097 0.995357 0.249769 0 1 0
0.458072 0.0948127 0.00697751 0 0 -1
0.000205665 -0.00583914 0.414279 0 -1 0
0.00713372 0.290221 0.597736 -1 0 0
-0.00545397 0.648709 0.922263 -1 0 0
-0.0127067 0.0905125 0.573017 -1 0 0
0.203627 0.781444 0.986096 0 0 1
0.998082 0.159993 0.414134 1 0 0
0.413447 1.01687 0.785966 0 1 0
0.79436 -0.00358942 0.832554 0 -1 0
0.00888291 0.750189 0.461015 -1 0 0
0.505042 0.584177 -0.00656901 0 0 -1
0.673245 1.00812 0.171989 0 1 0
1.00276 0.997098 0.221152 0 1 0
0.135405 0.819163 -0.0173918 0 0 -1
0.019589 0.132334 0.993024 0 0 1
0.284573 0.0728309 1.00568 0 0 1
0.880242 1.00018 0.653025 0 1 0
0.208076 0.223642 0.00923001 0 0 -1
0.00282256 0.98783 0.639546 -1 0 0
0.200694 0.994782 0.808224 0 1 0
0.00633522 0.992801 0.882933 -1 0 0
0.189637 0.934026 1.00085 0 0 1
0.991488 0.862557 0.191066 1 0 0
0.990521 0.59745 0.0663204 1 0 0
-0.00534703 0.751669 0.521421 -1 0 0
0.544927 0.00210877 0.590953 0 -1 0
0.448083 0.999335 0.081229 0 1 0
0.92429 0.0871597 1.00408 0 0 1
0.598948 0.127837 0.00282138 0 0 -1
1.00164 0.812701 0.453433 1 0 0
0.241808 0.992084 0.142703 0 1 0
0.0512714 0.296334 0.996095 0 0 1
-0.00376823 0.126981 0.980343 -1 0 0
0.724938 0.539911 0.997979 0 0 1
0.35077 0.00319725 0.26659 0 -1 0
-0.00894607 0.425675 0.968095 -1 0 0
0.998504 0.00750917 0.687269 1 0 0
0.966371 0.332752 0.0107924 0 0 -1
0.444397 1.00806 0.574005 0 1 0
0.0807147 0.356659 -0.000423716 0 0 -1
0.33534 0.0166678 0.619936 0 -1 0
0.496789 0.995882 0.724219 0 1 0
0.991124 0.388695 0.988156 0 0 1
-0.00142879 0.164566 0.19041 -1 0 0
0.173446 0.441373 0.00528121 0 0 -1
0.00266026 0.665513 0.86279 -1 0 0
1.01491 0.60916 0.340056 1 0 0
1.0175 0.846972 0.620305 1 0 0
0.419569 0.364009 0.998047 0 0 1
-0.0152575 0.908008 0.924391 -1 0 0
0.725308 0.81336 -0.00169119 0 0 -1
0.178333 0.0155913 0.206589 0 -1 0
-0.0134195 0.628269 0.838796 -1 0 0
0.738206 0.999116 0.276345 0 1 0
0.529811 0.642109 0.00877746 0 0 -1
0.989934 0.827499 0.257037 1 0 0
0.229951 1.00668 0.387801 0 1 0
0.00662654 0.319051 0.887429 -1 0 0
0.123077 -0.00492218 0.427716 0 -1 0
0.29221 0.00869596 0.505012 0 -1 0
0.513467 0.202708 0.997397 0 0 1
0.0859573 -0.00768477 0.826875 0 -1 0
0.643739 0.997309 0.985419 0 1 0
1.00618 0.553328 0.556228 1 0 0
-0.00298232 0.156788 0.27203 -1 0 0
0.997648 0.658041 0.65674 1 0 0
0.98837 0.872598 0.450478 1 0 0
0.0693342 0.994723 0.804644 0 1 0
1.00541 0.148024 0.856507 1 0 0
0.550007 0.0747576 1.0074 0 0 1
0.750888 0.987324 0.411744 0 1 0
0.194336 -0.00800002 0.931742 0 -1 0
0.000793535 0.150442 0.114376 -1 0 0
0.852724 0.994493 0.642204 0 1 0
0.216634 0.00719336 0.10279 0 -1 0
0.118436 1.00809 0.820136 0 1 0
-0.00375068 0.799867 0.669933 -1 0 0
0.652019 0.995183 0.0074301 0 0 -1
0.0131144 0.814277 0.503681 -1 0 0
0.786136 0.548394 -0.0123688 0 0 -1
0.174546 0.398971 0.0121039 0 0 -1
0.0034466 0.0120999 0.494071 -1 0 0
0.998263 0.190163 0.590758 1 0 0
0.661453 0.955293 0.0170568 0 0 -1
0.560832 0.69889 0.00728878 0 0 -1
0.99152 0.993371 0.842239 0 1 0
0.411497 0.0842252 0.0105504 0 0 -1
0.949748 0.271811 0.99898 0 0 1
0.0581338 -0.000875036 0.581281 0 -1 0
1.00085 0.638576 0.0240934 1 0 0
0.994094 0.138031 0.14518 1 0 0
0.67866 0.995122 0.151806 0 1 0
0.00420319 0.980886 0.321207 -1 0 0
0.999051 0.965508 0.175247 1 0 0
-0.00486481 0.13422 0.884535 -1 0 0
0.457761 1.01051 -0.00474509 0 0 -1
1.00107 0.582295 0.633176 1 0 0
0.00437946 0.385243 0.403361 -1 0 0
0.41321 -0.00420695 0.15798 0 -1 0
0.983214 0.528958 0.121804 1 0 0
0.975269 0.238767 0.150592 1 0 0
0.00598192 0.787313 0.521668 -1 0 0
0.986933 0.319702 0.0884846 1 0 0
0.235344 0.513744 1.00657 0 0 1
0.994257 -0.00933031 0.0388495 0 -1 0
0.199205 1.00734 0.393821 0 1 0
0.357675 0.00598736 0.882143 0 -1 0
0.494264 0.725845 -0.00748088 0 0 -1
0.998564 0.232733 0.61419 1 0 0
1.00842 0.254045 0.948048 1 0 0
0.864308 -0.000860696 0.372871 0 -1 0
0.994265 0.720314 0.203036 1 0 0
0.128235 0.106822 -0.00260601 0 0 -1
0.0558069 0.989354 0.673628 0 1 0
0.185815 1.00226 0.294338 0 1 0
0.180579 0.997753 0.704022 0 1 0
0.36327 -0.0104028 0.989742 0 -1 0
0.0720696 -0.0169991 0.976066 0 -1 0
-0.00478117 0.280673 0.927496 -1 0 0
0.111997 0.3202 0.994636 0 0 1
0.904144 0.89876 0.016772 0 0 -1
0.346264 1.01306 0.64089 0 1 0
0.740538 -0.0166714 0.356562 0 -1 0
0.498882 0.867159 0.00916779 0 0 -1
0.350465 0.0619015 0.990151 0 0 1
-0.0140082 0.56961 0.116179 -1 0 0
0.984657 0.67389 0.899753 1 0 0
1.00842 0.459692 0.144679 1 0 0
0.935505 0.817334 0.977812 0 0 1
0.0131116 0.0929142 0.281066 -1 0 0
0.144769 -0.0215747 0.49928 0 -1 0
0.502475 -0.00989598 0.0922576 0 -1 0
0.00375462 0.316354 0.468639 -1 0 0
0.00624149 0.0750895 0.0154186 -1 0 0
0.260159 0.916245 1.00259 0 0 1
0.708605 0.949135 1.00468 0 0 1
0.311893 0.989212 0.476696 0 1 0
0.104009 0.50166 0.984916 0 0 1
0.13333 0.196167 1.00346 0 0 1
0.605629 0.774183 1.01556 0 0 1
0.208566 -0.00260126 0.626573 0 -1 0
0.495952 1.00849 0.160256 0 1 0
0.433976 0.147929 0.985659 0 0 1
0.0539691 1.00746 0.170702 0 1 0
0.718092 0.9018 -0.0113078 0 0 -1
0.721619 1.01376 0.779003 0 1 0
-0.00083829 0.111606 0.30686 -1 0 0
1.01757 0.268599 0.103046 1 0 0
0.919438 0.647827 0.0061265 0 0 -1
0.60941 -0.00186004 0.218965 0 -1 0
0.0476271 0.122399 -0.00845249 0 0 -1
0.5029 0.576705 0.00803067 0 0 -1
0.432404 0.998132 0.968594 0 1 0
0.993164 0.152859 0.274705 1 0 0
0.197382 0.9932 0.578838 0 1 0
0.487139 0.520491 0.0203004 0 0 -1
0.0540813 0.414619 0.00531398 0 0 -1
0.183065 0.743468 1.0036 0 0 1
-0.000214302 0.404186 0.185157 -1 0 0
0.993338 0.0186616 0.771916 0 -1 0
0.330965 0.00307012 0.130271 0 -1 0
0.716089 0.308696 1.01702 0 0 1
0.999829 0.316393 0.471885 1 0 0
0.100461 0.771201 0.996149 0 0 1
0.987711 0.00685705 0.446892 0 -1 0
0.0904445 0.00308836 0.0380498 0 -1 0
0.752554 1.0172 0.812764 0 1 0
0.340478 0.0124962 0.445171 0 -1 0
0.639321 0.997304 -0.012875 0 0 -1
-0.00699954 0.559595 0.758158 -1 0 0
0.667413 1.01095 0.432474 0 1 0
0.407648 0.178066 -0.0119131 0 0 -1
0.727425 0.507324 0.00767979 0 0 -1
0.737278 0.00857926 0.969238 0 -1 0
0.00206844 0.297517 -0.0158369 0 0 -1
0.0684604 0.858771 0.00692276 0 0 -1
0.0808311 0.627358 0.9993 0 0 1
0.283518 0.274951 1.00326 0 0 1
0.550624 0.603943 0.0170613 0 0 -1
0.122436 1.00089 0.659146 0 1 0
0.00386301 0.692079 0.960895 -1 0 0
1.01484 0.480394 0.682234 1 0 0
0.629017 0.313934 1.01339 0 0 1
0.716241 0.994982 0.543963 0 1 0
1.00635 0.140786 0.171462 1 0 0
0.367788 0.974008 0.178209 0 1 0
0.542439 0.549882 1.00608 0 0 1
0.973705 0.76107 -0.0158103 0 0 -1
0.00579048 0.343603 0.393153 -1 0 0
0.995246 0.620594 0.833706 1 0 0
0.379307 1.00852 0.971455 0 1 0
-0.00925339 0.241311 0.273457 -1 0 0
0.930235 0.0034074 0.0364218 0 -1 0
0.139914 0.694297 0.994303 0 0 1
0.346342 1.00997 0.740752 0 1 0
0.993631 0.354169 0.387608 1 0 0
0.982868 0.72884 0.0411143 1 0 0
0.604414 0.62892 0.992754 0 0 1
0.919673 0.462769 0.00801063 0 0 -1
0.221092 -0.00502721 0.884658 0 -1 0
0.380035 0.998162 0.578438 0 1 0
0.281732 0.418866 -0.00320672 0 0 -1
0.108055 0.00743186 0.235256 0 -1 0
0.375685 0.0145799 0.492866 0 -1 0
0.392497 0.775568 -0.00746184 0 0 -1
0.643904 1.00593 0.88184 0 1 0
0.448683 1.00596 0.363635 0 1 0
0.435454 0.381311 0.991771 0 0 1
1.00585 0.502387 0.169038 1 0 0
0.597236 0.543145 0.991439 0 0 1
0.00547754 0.846487 0.103532 -1 0 0
0.985232 0.205688 0.110713 1 0 0
0.971786 1.00155 0.433712 0 1 0
0.0672397 1.02389 0.234649 0 1 0
0.506414 -0.00453232 0.84187 0 -1 0
-0.00480472 0.0841685 0.63958 -1 0 0
0.974061 0.129156 0.500134 1 0 0
0.991157 0.782887 0.66368 1 0 0
0.91528 0.963206 0.992851 0 0 1
0.0139848 0.93183 -0.000271922 0 0 -1
0.908377 0.00395261 0.143333 0 -1 0
-0.00695242 0.528014 0.796871 -1 0 0
0.885577 1.01446 0.433389 0 1 0
0.0836772 0.369348 1.00872 0 0 1
1.00349 0.253742 0.232096 1 0 0
0.473437 0.166954 1.00954 0 0 1
0.278814 0.543808 1.00619 0 0 1
0.895369 0.991052 0.880291 0 1 0
0.521585 0.55663 0.993139 0 0 1
0.724412 1.00507 0.174083 0 1 0
0.263063 0.933421 1.01025 0 0 1
0.230945 -0.00435295 0.541564 0 -1 0
0.0804394 0.0260303 1.01038 0 0 1
1.01086 0.939891 0.0178583 1 0 0
0.60374 0.00838845 0.221808 0 -1 0
0.198845 0.00843459 0.344268 0 -1 0
-0.0012012 0.519776 0.0160874 -1 0 0
0.363461 0.571767 1.00615 0 0 1
0.664345 1.00423 0.224258 0 1 0
0.99181 0.443947 0.299027 1 0 0
-0.0252049 0.597088 0.849751 -1 0 0
0.214033 0.362563 0.994896 0 0 1
-0.0172265 0.0203519 0.850293 -1 0 0
0.234657 0.384288 1.00359 0 0 1
0.604442 0.267937 0.982926 0 0 1
0.128273 0.999635 0.486792 0 1 0
0.463704 1.00107 0.131095 0 1 0
0.265663 0.392198 -0.0101337 0 0 -1
0.595452 -0.00988012 0.48489 0 -1 0
0.73119 0.406283 0.00657238 0 0 -1
0.586888 0.53961 0.997651 0 0 1
0.992033 0.15128 0.386257 1 0 0
0.849135 0.664999 1.00892 0 0 1
-0.00362352 0.0356223 0.582085 -1 0 0
0.525834 0.0019851 0.769703 0 -1 0
-0.00707592 0.836015 0.800241 -1 0 0
0.999288 0.664639 0.769097 1 0 0
0.813234 0.425941 1.00746 0 0 1
0.286859 0.992912 0.00110062 0 1 0
0.275937 0.997033 0.916414 0 1 0
0.725859 0.328372 0.00278727 0 0 -1
0.101726 1.0029 0.602763 0 1 0
0.994768 0.192291 0.299862 1 0 0
0.0991685 0.962331 0.982381 0 0 1
0.855348 0.409041 1.00157 0 0 1
0.997659 0.95904 0.831171 1 0 0
0.710647 1.01901 0.492674 0 1 0
0.782318 0.0073526 0.877499 0 -1 0
0.157085 0.884343 0.9975 0 0 1
0.0078175 0.0687726 0.22407 -1 0 0
1.01058 0.211632 0.0644463 1 0 0
0.00267757 0.824994 -0.0290399 0 0 -1
-0.000809764 0.240263 0.458117 -1 0 0
0.486094 0.00331165 0.617386 0 -1 0
0.152488 0.685775 1.00329 0 0 1
-0.020908 0.335128 0.272833 -1 0 0
0.190056 1.00218 0.0830954 0 1 0
1.01186 0.509457 0.933268 1 0 0
0.882515 -0.00796805 0.958635 0 -1 0
0.676899 -3.20816e-05 0.621356 0 -1 0
0.31838 0.112596 -0.00702517 0 0 -1
0.533604 0.769231 1.00608 0 0 1
0.0585676 0.0915044 1.02298 0 0 1
0.640899 1.01111 0.773462 0 1 0
0.616722 0.327511 0.00229512 0 0 -1
0.483571 0.0113366 0.173591 0 -1 0
0.990341 0.337813 0.351758 1 0 0
0.00787601 0.271994 0.560445 -1 0 0
0.900143 0.467374 -0.00488142 0 0 -1
0.305203 -0.010104 0.747288 0 -1 0
0.423046 0.663502 -0.00716905 0 0 -1
0.206005 0.00661184 0.558632 0 -1 0
0.454976 0.0126193 0.289998 0 -1 0
0.264689 0.992638 0.466592 0 1 0
0.62278 0.633731 1.00574 0 0 1
0.974949 0.695374 0.534909 1 0 0
0.359761 0.0108676 0.296321 0 -1 0
0.641917 0.0710554 -0.00641718 0 0 -1
0.4923 -0.0167721 0.16076 0 -1 0
0.103507 0.982923 0.406958 0 1 0
0.00665147 0.780858 0.329118 -1 0 0
0.743597 0.239004 0.990809 0 0 1
1.02988 0.882532 0.965223 1 0 0
0.0185964 0.729588 0.996335 0 0 1
-0.0125338 0.490103 0.0340786 -1 0 0
0.837329 0.990418 0.540548 0 1 0
0.858123 0.932188 0.993326 0 0 1
0.698419 1.00379 0.212357 0 1 0
0.68094 -0.00751201 0.170182 0 -1 0
0.987009 0.142402 0.237709 1 0 0
0.426291 -0.0197924 0.643052 0 -1 0
0.987028 0.838259 0.0912109 1 0 0
0.988138 -0.00079471 0.317964 0 -1 0
-0.00267877 0.0194976 0.534935 -1 0 0
0.0185679 0.306976 0.642438 -1 0 0
0.375042 0.367812 0.00315461 0 0 -1
0.969759 0.1804 0.786352 1 0 0
0.253877 0.384454 -0.0103358 0 0 -1
0.376425 0.984734 0.879286 0 1 0
0.3405 0.253894 0.00100514 0 0 -1
0.991859 0.594506 0.39926 1 0 0
0.0011292 0.345992 0.0388177 -1 0 0
-0.00714858 0.399622 0.489779 -1 0 0
0.491092 0.00857646 0.405068 0 -1 0
0.796312 0.513541 -0.0123621 0 0 -1
-0.0147323 0.956702 0.974462 -1 0 0
0.844745 0.0304102 1.01164 0 0 1
0.364783 0.901886 0.00676673 0 0 -1
0.170662 1.0037 0.171764 0 1 0
1.00658 0.916744 0.0186878 0 0 -1
0.99859 0.97856 1.00016 0 0 1
1.00605 0.0652887 0.24278 1 0 0
1.00889 0.216203 0.319563 1 0 0
0.543639 1.01077 0.0973267 0 1 0
0.649756 0.2616 0.991526 0 0 1
0.785382 0.203105 0.016095 0 0 -1
0.221086 0.00593271 0.202263 0 -1 0
0.770497 0.995799 0.578996 0 1 0
-0.00463782 0.669422 0.887877 -1 0 0
0.997391 0.292966 0.728134 1 0 0
1.0001 0.798604 0.14709 1 0 0
0.00776106 0.862147 0.416798 -1 0 0
-0.00188455 0.202347 0.288153 -1 0 0
0.441557 0.99991 0.505093 0 1 0
-0.00557722 0.414889 0.158506 -1 0 0
1.0041 0.648484 0.480345 1 0 0
-0.0109765 0.847388 0.31058 -1 0 0
0.905124 1.00337 0.419265 0 1 0
0.124175 0.625352 -0.00277826 0 0 -1
0.0539358 -0.00272777 0.50187 0 -1 0
1.00005 0.230034 0.198277 1 0 0
1.00387 0.513178 0.149384 1 0 0
0.943019 1.00447 0.0583458 0 1 0
0.539573 0.287146 0.0223178 0 0 -1
0.0039248 1.00725 0.0460422 0 1 0
0.993693 0.209669 0.496519 1 0 0
-0.00482826 0.481894 0.118137 -1 0 0
0.999198 0.181492 0.111434 1 0 0
0.616917 0.792819 0.996913 0 0 1
0.50963 1.01441 0.592115 0 1 0
0.0360215 0.89218 -0.00344621 0 0 -1
0.452716 -0.0109143 0.304485 0 -1 0
0.789649 0.00783402 0.74027 0 -1 0
0.132435 0.00553656 0.913163 0 -1 0
-0.0137247 0.108325 0.654082 -1 0 0
0.744314 0.00508046 0.40472 0 -1 0
0.792705 -0.0129699 0.272196 0 -1 0
0.617046 0.722841 -0.00235474 0 0 -1
0.00828043 0.292803 0.647699 -1 0 0
0.285855 0.598129 0.998168 0 0 1
0.967539 0.982656 0.683066 0 1 0
0.353039 1.00717 0.0250754 0 1 0
0.387026 0.658673 -0.00840728 0 0 -1
-0.0024397 0.0540209 0.243739 -1 0 0
0.00465826 0.0172195 0.225534 -1 0 0
0.85639 1.00539 0.962349 0 1 0
0.0137631 0.875158 0.266284 -1 0 0
-0.0141292 0.489741 0.0484484 -1 0 0
0.763376 1.00863 0.586516 0 1 0
0.224968 0.986322 0.337285 0 1 0
0.59938 0.679874 -0.00434959 0 0 -1
0.855206 0.84706 -0.00298783 0 0 -1
0.991871 0.641368 0.0787307 1 0 0
0.0099853 0.497406 0.418196 -1 0 0
0.33024 0.993589 0.885697 0 1 0
0.00575334 0.322614 0.0253985 -1 0 0
0.788147 -0.00546901 0.841091 0 -1 0
1.00698 0.721526 0.301373 1 0 0
0.014198 0.473214 0.735033 -1 0 0
0.00410205 0.384952 0.277869 -1 0 0
0.995625 0.69576 0.433349 1 0 0
0.203007 0.007009 0.690187 0 -1 0
0.615955 1.01126 0.925748 0 1 0
0.868398 0.0952979 1.00036 0 0 1
0.0719595 0.011248 0.821167 0 -1 0
1.0004 0.534823 0.409417 1 0 0
0.36171 -0.0203616 0.532773 0 -1 0
0.358996 0.744885 0.00813667 0 0 -1
0.736321 0.982748 0.576287 0 1 0
-0.0206074 0.318455 0.424475 -1 0 0
0.777282 1.00502 0.244438 0 1 0
1.00012 0.568894 0.842586 1 0 0
0.490068 0.00199058 0.507444 0 -1 0
0.332011 1.01471 0.794515 0 1 0
0.926156 0.520549 0.979466 0 0 1
0.650469 0.00168882 0.845141 0 -1 0
0.764309 -0.010465 -0.00190098 0 0 -1
0.93391 -0.00877219 0.781046 0 -1 0
0.593048 0.968926 1.01544 0 0 1
0.0535134 0.00434522 0.225193 0 -1 0
0.823096 0.986836 -0.00108839 0 0 -1
0.107926 0.0913607 -0.0140768 0 0 -1
0.999264 0.0320567 0.785893 1 0 0
0.20221 -0.00305105 0.534091 0 -1 0
0.14752 -0.00225147 0.271948 0 -1 0
0.350097 0.925275 0.00448701 0 0 -1
0.00231559 0.816601 0.501281 -1 0 0
0.0226873 0.867288 -0.0122688 0 0 -1
0.608269 -0.0114298 0.83244 0 -1 0
0.0106997 0.615104 0.769366 -1 0 0
0.00614754 0.24388 0.102637 -1 0 0
0.638088 -0.0275622 0.225911 0 -1 0
-0.0157537 0.942936 0.96428 -1 0 0
0.812334 0.290766 1.01043 0 0 1
0.0076387 0.992169 0.732601 -1 0 0
0.905418 0.998549 0.203712 0 1 0
0.0119623 0.351703 0.828993 -1 0 0
0.930415 0.309192 0.00141437 0 0 -1
0.197556 0.557436 -0.00127605 0 0 -1
0.193077 0.842121 1.00474 0 0 1
0.199929 0.558976 1.00948 0 0 1
0.99154 0.37059 0.398093 1 0 0
0.937457 0.0431653 1.00504 0 0 1
-0.00105051 0.421435 0.759557 -1 0 0
0.678718 0.368723 0.0111439 0 0 -1
0.00201044 0.57934 0.542598 -1 0 0
0.613551 -0.00451431 0.989757 0 -1 0
-0.0163834 0.0159527 0.487101 -1 0 0
1.00538 0.664284 0.152179 1 0 0
0.351182 0.41314 1.00459 0 0 1
1.01001 0.335757 0.473397 1 0 0
0.00131649 0.459852 0.128524 -1 0 0
0.493525 0.738473 -0.00220672 0 0 -1
0.899494 0.709391 -0.00650022 0 0 -1
0.994225 0.927744 0.506294 1 0 0
0.433945 0.16868 -0.00334488 0 0 -1
0.110855 0.478383 -0.0177488 0 0 -1
0.783389 0.00165221 0.428616 0 -1 0
0.123 0.613407 0.982257 0 0 1
0.0562861 0.360371 -0.0170751 0 0 -1
0.383328 0.258658 1.00927 0 0 1
0.282955 0.360676 0.00685657 0 0 -1
0.999763 0.386965 0.330278 1 0 0
0.093155 0.774502 0.00193325 0 0 -1
0.989967 0.991085 0.792742 1 0 0
0.847674 1.00475 0.923006 0 1 0
-0.0080953 0.233932 0.783444 -1 0 0
1.00595 0.600235 0.498131 1 0 0
0.954834 0.0075524 0.929272 0 -1 0
0.0629215 0.01259 0.510962 0 -1 0
0.19145 0.647567 0.999845 0 0 1
0.996222 0.539245 0.107761 1 0 0
0.620876 0.220977 -0.0145846 0 0 -1
0.0787907 0.996778 0.277682 0 1 0
0.670612 1.00394 0.296515 0 1 0
0.202504 0.0110858 0.587028 0 -1 0
-0.0123543 0.815322 0.371783 -1 0 0
0.667927 0.653633 0.996389 0 0 1
1.00533 0.720342 0.672744 1 0 0
-0.00726379 0.329962 0.200592 -1 0 0
0.977584 1.01336 0.585301 0 1 0
0.994072 0.352793 0.0979002 1 0 0
0.115568 0.992645 0.0739927 0 1 0
1.01223 0.974519 0.764504 1 0 0
0.117119 0.77936 0.99962 0 0 1
0.389505 0.136016 1.00431 0 0 1
0.444626 0.00440952 0.0334728 0 -1 0
0.0121875 0.0544426 0.388277 -1 0 0
0.110134 0.700131 0.00198604 0 0 -1
0.918677 0.00494103 0.225366 0 -1 0
0.97897 0.750318 0.973495 1 0 0
0.134931 0.00238658 0.892336 0 -1 0
1.00681 0.937692 0.949691 1 0 0
1.00875 0.0758125 0.930465 1 0 0
0.00371656 0.705326 0.401596 -1 0 0
0.683675 0.555296 1.02112 0 0 1
0.613258 0.992513 0.605918 0 1 0
0.786671 0.289427 0.999869 0 0 1
0.749312 0.664831 0.00349947 0 0 -1
0.570018 0.987298 0.558954 0 1 0
0.809628 0.0134556 0.414834 0 -1 0
0.373523 0.687767 1.00438 0 0 1
0.939089 0.683261 0.00561203 0 0 -1
0.00506817 0.798343 0.762797 -1 0 0
-0.00889119 0.0882404 0.897609 -1 0 0
0.00183809 0.0112422 0.421299 -1 0 0
0.00466503 0.65326 0.160178 -1 0 0
0.943809 0.00821543 0.424523 0 -1 0
0.204837 -0.0079416 0.333715 0 -1 0
0.147612 1.00022 0.0285591 0 1 0
0.791942 0.663276 1.00424 0 0 1
0.178252 0.863549 0.00256317 0 0 -1
0.968127 0.280054 0.00119691 0 0 -1
0.516696 -0.00587908 0.25156 0 -1 0
0.70005 0.677178 0.99999 0 0 1
0.000530656 0.828904 0.0442428 -1 0 0
0.303579 0.51245 0.99567 0 0 1
0.00656207 0.855314 0.436082 -1 0 0
0.50752 0.165245 1.00228 0 0 1
0.296189 0.00479332 0.547562 0 -1 0
0.120131 -0.00281248 0.3638 0 -1 0
0.966671 1.00295 0.476739 0 1 0
0.999243 0.269177 0.612096 1 0 0
-0.0129859 0.467495 0.636297 -1 0 0
0.724254 0.288659 0.0109373 0 0 -1
0.00623533 0.281825 0.311571 -1 0 0
0.963327 0.558143 1.0102 0 0 1
0.862989 0.0103121 0.782335 0 -1 0
0.0587417 0.933619 0.991408 0 0 1
0.414767 0.947779 -0.0106414 0 0 -1
0.577524 0.704086 1.01322 0 0 1
0.32506 0.00193238 0.87907 0 -1 0
0.447491 0.995966 0.22834 0 1 0
0.99424 0.609834 0.846261 1 0 0
0.571709 0.224545 0.0106718 0 0 -1
0.718081 1.00216 0.842116 0 1 0
-0.0244881 0.723443 0.61515 -1 0 0
0.349356 0.841628 0.987783 0 0 1
0.183549 0.0113516 0.24477 0 -1 0
0.835031 0.793648 -0.00776874 0 0 -1
0.96822 0.713684 0.990218 0 0 1
0.000528774 0.26331 0.71367 -1 0 0
0.803059 0.996986 1.00888 0 0 1
0.997649 0.517437 0.863365 1 0 0
0.966638 0.925188 -0.00411929 0 0 -1
0.927121 0.349095 1.00157 0 0 1
0.424247 0.854951 1.00202 0 0 1
0.709977 0.0151087 0.760233 0 -1 0
0.143421 0.41402 1.00487 0 0 1
0.99643 0.0491589 0.0755149 1 0 0
0.52284 0.00438244 0.0662417 0 -1 0
0.0403263 0.474311 0.990397 0 0 1
0.559754 0.995006 0.741552 0 1 0
0.621968 0.80691 0.0063363 0 0 -1
-0.00490132 0.154113 0.406928 -1 0 0
0.00659168 0.374097 0.651828 -1 0 0
-0.0163833 0.224404 0.301825 -1 0 0
0.993982 0.0769011 0.855736 1 0 0
0.980171 0.530698 1.00211 0 0 1
0.996119 0.940236 0.680417 1 0 0
7.55573e-05 0.889892 0.431906 -1 0 0
0.766448 0.360631 -0.00117749 0 0 -1
0.438052 0.0161545 0.00123594 0 0 -1
0.255131 0.792173 1.00021 0 0 1
0.51723 0.3005 0.988826 0 0 1
0.316103 1.00536 0.86732 0 1 0
0.691243 0.0229946 0.67943 0 -1 0
1.01002 0.695502 0.236375 1 0 0
0.996993 0.00706281 0.272625 1 0 0
0.388113 0.060274 0.988424 0 0 1
0.801306 0.585864 0.0150792 0 0 -1
0.0586664 0.26181 -0.00773994 0 0 -1
0.812364 0.139483 -0.011821 0 0 -1
0.375285 1.02233 0.193397 0 1 0
0.882421 0.99286 0.370767 0 1 0
1.01153 0.849172 0.427389 1 0 0
1.01447 0.512361 0.952773 1 0 0
0.933977 0.283501 1.00432 0 0 1
0.558518 1.00678 0.486017 0 1 0
0.999222 0.956907 0.165238 1 0 0
1.00614 0.439538 0.254563 1 0 0
0.116825 -0.00358638 0.601725 0 -1 0
0.851398 0.37296 1.0037 0 0 1
0.878172 0.0472609 0.0010689 0 0 -1
0.00778067 0.991847 0.445496 -1 0 0
0.000527213 0.0875989 -0.00677674 0 0 -1
1.00509 0.49557 0.410808 1 0 0
1.00842 0.284868 0.641876 1 0 0
0.87601 0.988092 0.150489 0 1 0
0.00665307 0.998383 0.729042 0 1 0
0.353868 -0.000338256 0.348546 0 -1 0
0.439622 0.186378 1.00285 0 0 1
0.393025 0.24786 -0.00551075 0 0 -1
0.383678 0.176186 0.00708035 0 0 -1
-0.00092239 0.448604 0.944966 -1 0 0
0.332259 0.00344563 0.730935 0 -1 0
1.00862 0.499472 0.609315 1 0 0
0.643706 1.00476 0.0723848 0 1 0
0.806869 1.00893 0.0931431 0 1 0
1.01786 0.21647 0.718142 1 0 0
0.486763 0.928346 1.01001 0 0 1
0.992037 0.325275 0.550107 1 0 0
1.00281 0.666746 0.446651 1 0 0
0.664863 1.01302 0.00323681 0 0 -1
0.782564 -0.0208365 0.954968 0 -1 0
0.45551 1.00522 0.0248419 0 1 0
0.889446 0.411237 0.00233099 0 0 -1
0.176014 0.241728 -7.30513e-05 0 0 -1
0.725169 0.307832 0.00592898 0 0 -1
0.208064 0.706554 -0.00415344 0 0 -1
7.36537e-05 0.373133 0.962437 -1 0 0
0.703631 0.277891 0.00557086 0 0 -1
0.0887597 0.00600642 0.0715405 0 -1 0
0.254466 0.621551 -0.00929407 0 0 -1
0.922577 0.439167 0.00136612 0 0 -1
0.00498517 0.746213 0.289521 -1 0 0
0.988376 0.914734 0.551703 1 0 0
1.00452 0.747378 0.148808 1 0 0
1.00157 0.962791 0.471489 1 0 0
0.348964 0.00204893 0.0762689 0 -1 0
0.309352 0.00214077 0.526687 0 -1 0
0.209732 1.01523 0.202482 0 1 0
0.275253 0.922161 1.00714 0 0 1
0.544915 0.975176 0.994432 0 1 0
1.0206 0.741387 0.934123 1 0 0
0.0803103 0.0511958 0.97837 0 0 1
0.0437725 0.186943 0.994005 0 0 1
0.0176199 0.578698 0.0393911 -1 0 0
0.63912 1.00281 0.797039 0 1 0
0.721217 0.00811102 0.311847 0 -1 0
0.0118352 0.222483 0.294606 -1 0 0
1.00315 0.505523 0.175257 1 0 0
0.588829 0.0660783 0.978472 0 0 1
0.00479993 0.138458 0.982715 -1 0 0
0.786301 -0.021593 0.932939 0 -1 0
0.451459 0.000376365 0.20533 0 -1 0
0.621693 0.285821 -0.000808037 0 0 -1
0.690503 0.98873 0.257535 0 1 0
0.29887 0.0057843 0.262207 0 -1 0
-0.015782 0.0832661 0.453594 -1 0 0
0.405208 0.971032 0.833173 0 1 0
0.193737 0.597374 0.00300947 0 0 -1
0.710631 0.0265219 0.566068 0 -1 0
0.540085 1.00191 0.883522 0 1 0
0.989976 0.450963 0.289845 1 0 0
0.993472 0.824994 0.73896 1 0 0
0.355417 0.33334 0.0019722 0 0 -1
0.728568 0.0289445 1.00131 0 0 1
1.00023 0.20297 0.0316134 1 0 0
0.818497 0.353561 0.983963 0 0 1
0.939471 0.282216 -0.00568322 0 0 -1
0.352404 0.723012 -0.00746092 0 0 -1
1.00414 0.317815 0.86529 1 0 0
0.227529 0.0012162 0.921048 0 -1 0
0.49772 -0.00127698 0.991205 0 0 1
-0.00935784 0.450457 0.323717 -1 0 0
0.530157 0.275169 1.01013 0 0 1
1.00236 0.729824 0.928442 1 0 0
0.00971868 0.405046 0.837733 -1 0 0
0.992797 0.633469 0.991381 1 0 0
0.415378 -0.0124731 0.135983 0 -1 0
1.01434 0.252852 0.0971889 1 0 0
0.767626 1.00333 0.261201 0 1 0
0.991373 0.521768 0.42934 1 0 0
0.819136 0.991527 0.604443 0 1 0
0.00780445 0.942999 0.658875 -1 0 0
0.99073 0.860957 0.189156 1 0 0
0.0019746 0.0841149 0.642419 -1 0 0
0.00508252 0.202749 0.881802 -1 0 0
0.423869 0.0101996 0.435665 0 -1 0
-0.00520388 0.103077 0.95752 -1 0 0
0.427592 0.982194 0.550867 0 1 0
0.00673989 0.74133 0.172667 -1 0 0
0.457109 -0.00515576 0.0196232 0 -1 0
0.453152 1.00968 0.200242 0 1 0
1.01266 0.944607 0.277879 1 0 0
0.599114 0.794859 1.01637 0 0 1
-0.00485214 0.271868 0.488391 -1 0 0
0.758942 0.336798 -0.0101702 0 0 -1
-0.000283864 0.861233 0.835476 -1 0 0
0.875192 0.715234 1.0039 0 0 1
1.00816 0.269677 0.787755 1 0 0
0.767247 0.630748 1.01479 0 0 1
0.162122 0.507488 0.0100575 0 0 -1
0.586941 0.110591 0.0100287 0 0 -1
-0.000429342 0.33596 0.809997 -1 0 0
0.991271 0.907061 0.384848 1 0 0
1.0055 0.471267 0.850077 1 0 0
0.0353153 0.355662 0.992343 0 0 1
0.382093 0.993126 0.967298 0 1 0
1.00905 0.574355 0.76166 1 0 0
0.895994 1.01043 0.696924 0 1 0
0.252676 0.999765 0.3354 0 1 0
0.796162 0.00148063 0.623501 0 -1 0
0.0419133 0.0105203 0.205312 0 -1 0
0.0117829 0.0911345 0.163856 -1 0 0
0.69485 0.0305895 0.997498 0 0 1
0.0267033 0.011577 0.251355 0 -1 0
1.00037 0.817092 0.345038 1 0 0
0.998401 0.962979 0.609938 1 0 0
0.226075 -0.00878903 0.586084 0 -1 0
0.74689 0.944773 0.00118483 0 0 -1
0.570499 0.547711 0.0020641 0 0 -1
0.201235 0.635189 1.02049 0 0 1
0.604023 0.98405 0.116123 0 1 0
1.00561 0.137052 0.777546 1 0 0
0.427681 0.0915191 0.014438 0 0 -1
0.312431 0.138077 -0.00465293 0 0 -1
-0.00263892 0.821576 0.164685 -1 0 0
0.57764 0.426965 0.0178251 0 0 -1
0.996323 0.584429 0.763318 1 0 0
0.988226 0.500517 0.185449 1 0 0
0.421978 -0.0257596 0.266902 0 -1 0
0.397632 0.00252567 0.559998 0 -1 0
-0.00426514 0.634054 0.138082 -1 0 0
0.444092 0.620593 0.992499 0 0 1
0.0107757 0.828198 0.447609 -1 0 0
0.0113758 0.0691103 0.541546 -1 0 0
0.900232 -0.010614 0.685701 0 -1 0
0.5339 0.953866 0.00125084 0 0 -1
0.681472 0.000676877 0.723859 0 -1 0
0.0104878 0.252034 0.104166 -1 0 0
0.0413217 0.990927 0.405608 0 1 0
-0.0127732 0.118672 0.693948 -1 0 0
0.995207 0.381 0.74295 1 0 0
0.20637 0.722086 0.00765251 0 0 -1
0.838811 -0.0102696 0.991036 0 -1 0
0.0040881 0.00407379 0.540248 -1 0 0
1.00273 0.931033 0.952656 1 0 0
0.446916 -0.00520256 0.116566 0 -1 0
0.121855 0.0045107 0.786818 0 -1 0
0.754446 0.578303 0.000478252 0 0 -1
0.86805 0.56514 1.00525 0 0 1
0.280338 0.0186268 -0.00257026 0 0 -1
0.106439 0.0380578 0.0105034 0 0 -1
0.0197049 0.37756 0.425265 -1 0 0
0.39851 0.0200464 0.621761 0 -1 0
0.366388 0.0214736 0.515625 0 -1 0
0.497042 0.0196019 1.00907 0 0 1
0.0174104 0.888562 -0.0159668 0 0 -1
1.00301 0.187745 0.201755 1 0 0
0.00123979 0.822806 0.486339 -1 0 0
0.597503 0.69762 1.01405 0 0 1
0.0193558 0.000708209 0.0612206 0 -1 0
0.426462 0.317107 1.00206 0 0 1
0.918736 0.791796 -0.000112353 0 0 -1
1.00154 0.944832 0.354402 1 0 0
0.000854817 0.831139 0.858415 -1 0 0
0.593048 0.130298 0.988817 0 0 1
0.568974 0.47537 1.00231 0 0 1
1.01314 0.00853582 0.987054 0 0 1
0.798355 0.871922 0.98865 0 0 1
-0.000893403 0.0732935 0.534939 -1 0 0
0.334524 0.0674697 0.995655 0 0 1
0.79114 0.618926 -0.0228311 0 0 -1
0.0052672 0.192251 0.42071 -1 0 0
0.780049 0.975748 0.9954 0 0 1
0.378156 -0.00782666 0.259639 0 -1 0
0.31988 0.014229 0.274257 0 -1 0
0.694392 0.944171 0.996207 0 0 1
0.516538 0.135493 1.00975 0 0 1
0.00927499 0.254539 0.449486 -1 0 0
0.867579 0.793094 1.01359 0 0 1
0.345894 0.814671 0.975707 0 0 1
0.0433598 0.448131 1.00199 0 0 1
1.02299 0.615207 0.940332 1 0 0
0.952552 0.515739 0.00654078 0 0 -1
0.000103483 0.0610888 0.39546 -1 0 0
0.995632 0.694058 0.788292 1 0 0
0.00198206 0.203834 0.719 -1 0 0
0.995354 0.0316239 0.194187 1 0 0
0.601116 0.508913 -0.00600976 0 0 -1
0.996302 0.888095 -0.0165416 0 0 -1
0.186501 1.02198 0.0917567 0 1 0
1.00766 0.542218 0.371116 1 0 0
0.151231 -0.00523852 0.222861 0 -1 0
0.281022 0.00809179 0.0394036 0 -1 0
0.814812 0.992305 0.475203 0 1 0
0.170725 0.361345 -0.000827627 0 0 -1
0.99202 0.470211 0.805559 1 0 0
0.351382 0.171823 -0.0204152 0 0 -1
1.00447 0.0187194 0.0692999 0 -1 0
0.449096 0.365254 0.00280157 0 0 -1
-0.00358171 0.259119 0.92069 -1 0 0
-0.0213066 0.458438 0.11316 -1 0 0
0.984763 0.075395 0.656527 1 0 0
0.00581806 0.676903 0.191573 -1 0 0
0.651126 0.0261596 0.527904 0 -1 0
0.450449 1.0196 0.700757 0 1 0
0.00255531 0.179631 0.613418 -1 0 0
0.598622 0.785025 0.988179 0 0 1
0.788048 0.870274 -0.00695358 0 0 -1
0.177579 0.0110339 0.0927366 0 -1 0
-0.0221641 0.923465 0.501327 -1 0 0
0.937011 0.542276 1.01181 0 0 1
0.883577 0.00789553 0.869372 0 -1 0
0.989969 0.133218 0.00629428 1 0 0
0.478189 0.0190273 0.317038 0 -1 0
0.653993 1.00066 0.594473 0 1 0
1.00535 0.293124 0.653247 1 0 0
0.979482 0.0434534 0.81226 1 0 0
0.993903 0.0593348 0.00663444 1 0 0
0.955201 0.22128 0.986637 0 0 1
1.01347 0.839454 0.48071 1 0 0
-0.00828832 0.45141 0.445213 -1 0 0
0.111644 0.26034 1.00156 0 0 1
0.727334 0.00831158 1.00111 0 0 1
0.98957 0.997179 0.321774 0 1 0
0.0602676 0.0194911 1.00889 0 0 1
-0.00899925 0.149259 0.917486 -1 0 0
0.00776323 0.928622 0.909736 -1 0 0
0.882568 0.000320858 0.641766 0 -1 0
0.000960701 0.312552 0.301653 -1 0 0
0.20974 0.000903324 0.402133 0 -1 0
0.181714 0.00039403 0.0889759 0 -1 0
0.995159 0.79739 0.990862 0 0 1
-0.018296 0.558977 0.490016 -1 0 0
0.835896 -0.00627516 0.847108 0 -1 0
0.0315216 0.123015 0.0129313 0 0 -1
0.663957 -0.00477545 0.222095 0 -1 0
1.00056 0.49852 0.85162 1 0 0
0.426727 0.930334 -0.00148307 0 0 -1
0.51616 0.273911 0.99155 0 0 1
0.0993794 0.0029715 0.941945 0 -1 0
0.00361146 0.272341 0.607224 -1 0 0
0.993502 0.809324 0.895598 1 0 0
-0.00604168 0.57166 0.551669 -1 0 0
0.990973 0.766822 0.798183 1 0 0
0.379323 0.000619901 0.332349 0 -1 0
0.322457 0.00742164 0.186324 0 -1 0
0.999241 0.281468 0.992101 1 0 0
0.413658 0.943732 0.97972 0 0 1
0.278101 0.540198 -0.00413544 0 0 -1
0.992141 0.892907 0.833721 1 0 0
0.0974898 0.712928 0.990873 0 0 1
-0.00328993 0.86375 0.559774 -1 0 0
0.000455312 0.759959 0.139159 -1 0 0
0.887906 0.748791 0.985354 0 0 1
0.0391632 0.983186 0.697385 0 1 0
0.319633 -0.00856248 0.0051721 0 -1 0
0.797176 1.01573 0.0640504 0 1 0
0.0901505 0.545244 1.00749 0 0 1
0.551911 -0.000440081 0.537609 0 -1 0
0.408065 0.00176326 0.585867 0 -1 0
0.237731 0.163664 0.98684 0 0 1
0.407421 1.01943 0.572957 0 1 0
0.366102 0.999041 0.603448 0 1 0
-0.00653369 0.211294 0.675585 -1 0 0
0.889919 0.63422 1.00378 0 0 1
0.264902 0.0415744 0.992669 0 0 1
0.269846 -0.0161843 0.242465 0 -1 0
0.00535627 0.0271259 0.760444 -1 0 0
0.0724658 0.00232992 0.631232 0 -1 0
0.00804543 0.994008 0.0766028 0 1 0
-0.0274253 0.838164 0.617391 -1 0 0
0.942648 0.668885 -0.0117238 0 0 -1
0.986741 0.426437 0.600056 1 0 0
0.995529 0.32626 0.588202 1 0 0
0.963329 0.232729 -0.00272083 0 0 -1
0.995286 1.01549 0.160853 0 1 0
0.765519 0.580878 -0.00216843 0 0 -1
0.0633501 0.951453 -0.00874718 0 0 -1
0.723323 0.428885 0.0108812 0 0 -1
0.129972 -0.0074988 0.519543 0 -1 0
0.636005 0.0875765 -0.00309036 0 0 -1
0.00530837 0.280601 0.233256 -1 0 0
0.0217558 0.151173 0.992637 0 0 1
1.00626 0.0695894 0.823375 1 0 0
0.0113146 0.956918 0.805163 -1 0 0
0.795501 0.200809 0.986533 0 0 1
1.00135 0.0872234 0.588436 1 0 0
0.0144231 0.165981 0.262547 -1 0 0
0.267251 0.992859 0.357487 0 1 0
0.00693115 0.480673 0.143021 -1 0 0
0.659686 0.994637 0.91375 0 1 0
0.569302 0.137307 -0.00273097 0 0 -1
0.990576 0.757795 0.578451 1 0 0
0.379067 0.747415 -0.00586924 0 0 -1
0.531485 1.01076 0.169313 0 1 0
0.000590899 0.649986 0.9496 -1 0 0
0.988703 -0.00470895 0.605211 0 -1 0
0.169748 0.527939 -0.0176176 0 0 -1
1.00143 0.0459514 0.0553583 1 0 0
0.801299 -0.0135049 0.516018 0 -1 0
-0.00542583 0.311714 0.306194 -1 0 0
0.645156 0.968411 0.490259 0 1 0
0.705335 0.00481163 0.989269 0 -1 0
0.392523 0.277075 1.00468 0 0 1
0.134281 1.00337 0.606293 0 1 0
0.239616 1.00729 0.833392 0 1 0
0.00204562 0.0520957 0.703554 -1 0 0
0.0237613 0.578087 0.521524 -1 0 0
0.436621 0.0038762 0.0852832 0 -1 0
0.00263347 0.648765 0.906087 -1 0 0
0.0988135 0.00832293 0.245284 0 -1 0
0.898228 0.255758 -0.00259713 0 0 -1
0.301724 0.0944322 1.00861 0 0 1
0.893542 0.995437 0.800021 0 1 0
0.571013 0.606299 0.00546326 0 0 -1
1.00895 0.877604 0.728295 1 0 0
1.00977 0.923942 0.824056 1 0 0
0.0186221 0.0113615 0.360289 0 -1 0
0.67466 0.395838 -0.0190156 0 0 -1
0.525042 0.920674 0.985644 0 0 1
0.46919 0.453881 1.00139 0 0 1
0.722369 0.0179002 0.858412 0 -1 0
0.282591 0.952421 0.99477 0 0 1
0.989037 0.0305209 0.754558 1 0 0
0.293818 0.996222 0.779378 0 1 0
0.306408 0.995726 0.890562 0 1 0
0.332134 -0.010384 0.736727 0 -1 0
-0.00400239 0.534722 0.167567 -1 0 0
-0.00197748 0.258249 0.859149 -1 0 0
-0.0069796 0.713721 0.458098 -1 0 0
0.997287 0.862006 0.876521 1 0 0
-0.00861473 0.36304 0.770128 -1 0 0
0.0136767 0.347772 0.237408 -1 0 0
0.643109 0.812351 0.984504 0 0 1
0.312471 0.0106574 0.617572 0 -1 0
0.0106512 0.494856 0.0156046 -1 0 0
-0.0160887 0.306623 0.939253 -1 0 0
0.864742 0.995396 0.116377 0 1 0
0.98304 0.540152 0.0476301 1 0 0
-0.0136172 0.74453 0.238423 -1 0 0
0.845511 -0.00476388 0.962569 0 -1 0
0.0955124 0.990118 0.998064 0 1 0
0.737121 -0.00330945 0.794348 0 -1 0
0.987481 0.550924 0.0112349 0 0 -1
0.803929 0.108309 1.00004 0 0 1
0.0113922 0.0490255 0.746734 -1 0 0
0.8139 0.985557 0.992294 0 1 0
0.890879 0.672351 0.994294 0 0 1
0.0154327 0.543738 0.244322 -1 0 0
0.53054 1.00256 0.854497 0 1 0
0.397548 0.99109 0.59288 0 1 0
0.236189 0.591824 1.00505 0 0 1
0.0685802 0.110794 0.997975 0 0 1
0.494592 0.998846 0.325535 0 1 0
0.895889 0.994063 0.536149 0 1 0
0.169886 0.00986083 0.971881 0 -1 0
0.815797 0.507975 0.997919 0 0 1
0.615784 -0.0155579 0.894807 0 -1 0
-0.0114128 0.923252 0.15934 -1 0 0
0.99247 0.652662 0.579291 1 0 0
0.193562 0.562989 -0.0140315 0 0 -1
0.99855 0.927598 0.293883 1 0 0
-0.0234682 0.761349 0.55557 -1 0 0
0.66917 0.996952 0.528464 0 1 0
0.173482 0.0635856 0.993819 0 0 1
0.895464 0.678613 -0.00643301 0 0 -1
0.154385 0.642368 0.0125611 0 0 -1
0.0111082 0.399397 0.858928 -1 0 0
0.767367 0.375654 0.990945 0 0 1
0.880926 0.773111 0.98752 0 0 1
0.572386 -0.0074298 0.842724 0 -1 0
0.3704 0.91159 1.01489 0 0 1
0.139852 1.03218 0.672146 0 1 0
0.793328 0.726595 0.00380578 0 0 -1
-0.0103766 0.426183 0.665498 -1 0 0
0.997867 0.87464 0.272573 1 0 0
0.0749679 0.899785 0.99673 0 0 1
0.362052 0.713638 1.00721 0 0 1
0.466339 0.708948 0.975632 0 0 1
0.106739 0.0183683 0.0158999 0 0 -1
0.153111 -0.0075072 0.761273 0 -1 0
0.970531 -0.000729852 0.0854005 0 -1 0
-0.0174351 0.623906 0.439895 -1 0 0
1.00164 0.830311 0.559727 1 0 0
0.0804957 0.982774 0.0795788 0 1 0
0.675542 0.00106263 0.0850217 0 -1 0
-0.00567037 0.672707 0.219812 -1 0 0
0.00471626 0.279841 0.729628 -1 0 0
0.55019 0.929241 0.994405 0 0 1
0.468424 0.991283 0.954564 0 1 0
0.109636 0.740991 0.0133462 0 0 -1
0.390598 0.999028 0.335359 0 1 0
0.563921 0.165162 1.01146 0 0 1
0.379334 -0.00443717 0.268167 0 -1 0
0.99677 0.275487 0.416334 1 0 0
0.439609 1.01014 0.741152 0 1 0
0.615678 0.428886 -0.0112838 0 0 -1
0.728088 -0.0134473 0.00657398 0 -1 0
0.557107 -0.0172113 0.967131 0 -1 0
-0.0116468 0.436785 0.137311 -1 0 0
0.137217 1.02302 0.274841 0 1 0
0.00416182 0.0191737 0.412624 -1 0 0
0.972479 0.401544 0.714994 1 0 0
0.571957 0.541682 0.982134 0 0 1
0.65188 0.994982 0.994212 0 0 1
0.662941 0.4945 0.00716859 0 0 -1
0.735028 -0.00453942 0.261999 0 -1 0
-0.00402863 0.620623 0.792876 -1 0 0
0.527113 0.997997 0.349433 0 1 0
0.0278956 -0.0158566 0.522273 0 -1 0
0.200844 0.991678 0.711925 0 1 0
-0.00185963 0.552419 0.250168 -1 0 0
0.0193213 1.00265 0.471273 0 1 0
0.237423 0.572232 0.995138 0 0 1
0.278081 0.125832 1.00217 0 0 1
-0.00511711 0.438455 0.738045 -1 0 0
-0.0131519 0.859393 0.470647 -1 0 0
-0.00803389 0.252107 0.209902 -1 0 0
0.805521 0.366007 0.0100979 0 0 -1
0.527124 0.134262 0.993779 0 0 1
-0.00691186 0.0264792 0.0636079 0 -1 0
0.593695 1.00976 0.69813 0 1 0
0.480783 -0.00395487 0.408865 0 -1 0
0.274864 1.00869 0.341963 0 1 0
1.01761 0.0938663 0.901525 1 0 0
0.425921 -0.00575245 0.944223 0 -1 0
0.884765 0.690251 0.999422 0 0 1
0.770882 0.991994 0.116286 0 1 0
0.968025 0.341797 0.00545939 0 0 -1
0.231146 0.994577 -0.00986872 0 0 -1
-0.0034176 0.92132 0.0677441 -1 0 0
0.547167 1.00464 0.841819 0 1 0
0.779169 0.99793 0.214176 0 1 0
0.841005 0.180764 1.01376 0 0 1
0.496925 -0.0106439 0.668224 0 -1 0
0.825095 -0.00826996 0.135722 0 -1 0
0.410521 0.25896 -0.00384 0 0 -1
0.724693 1.00108 0.632562 0 1 0
0.418533 0.017417 0.858711 0 -1 0
0.584785 0.101086 1.02058 0 0 1
-0.00459919 0.983839 0.56436 -1 0 0
0.80284 0.767486 0.0103441 0 0 -1
1.00508 0.577109 0.00844139 1 0 0
0.0937387 0.197796 0.998953 0 0 1
0.993553 0.944682 0.969575 1 0 0
0.470039 1.00272 -0.0126886 0 0 -1
0.531049 0.508582 0.996193 0 0 1
0.0676801 0.319948 -0.0166624 0 0 -1
0.443438 1.01277 0.435179 0 1 0
0.57552 0.984935 1.00939 0 0 1
0.923107 1.00114 0.266971 0 1 0
0.0976065 0.875185 0.0195624 0 0 -1
0.936677 0.396819 0.995594 0 0 1
0.370254 0.991701 0.0969733 0 1 0
0.746856 -0.00708776 0.494822 0 -1 0
0.962596 -0.00339153 0.704816 0 -1 0
0.599952 0.521964 -0.000195461 0 0 -1
0.945046 -0.0022044 0.922061 0 -1 0
0.874785 0.897317 -0.0118352 0 0 -1
0.846903 -0.00345421 0.545087 0 -1 0
0.226819 -0.000736113 0.843346 0 -1 0
0.00878275 0.0795859 0.594709 -1 0 0
-0.000738779 0.818096 0.509657 -1 0 0
1.00599 0.787733 0.968447 1 0 0
0.0141258 0.429332 0.160431 -1 0 0
0.48099 1.00947 0.417693 0 1 0
-0.0011683 0.773309 0.348278 -1 0 0
-0.00269931 0.475855 0.372735 -1 0 0
1.01252 0.800034 0.951761 1 0 0
0.519003 0.994581 0.586297 0 1 0
0.723178 0.009256 0.55678 0 -1 0
0.996524 0.121755 0.186515 1 0 0
0.00405931 0.040003 0.0388215 -1 0 0
0.0959465 1.00568 0.300811 0 1 0
0.34617 0.672383 0.0232862 0 0 -1
1.01846 0.202377 0.236828 1 0 0
0.59406 -0.00227221 0.580862 0 -1 0
0.760119 0.70351 -0.000835451 0 0 -1
-0.00258864 0.405539 0.55049 -1 0 0
0.294433 0.296942 1.00777 0 0 1
-0.00660911 0.341594 0.902417 -1 0 0
0.0132727 0.779817 0.618228 -1 0 0
1.00727 0.976588 0.666239 1 0 0
-0.00339219 0.457179 0.129999 -1 0 0
-0.00585293 0.501052 0.482489 -1 0 0
0.288958 0.498733 0.0113947 0 0 -1
0.805292 0.0782767 1.00432 0 0 1
0.848919 -0.00545054 0.934679 0 -1 0
0.00075929 0.556892 0.135934 -1 0 0
0.813503 0.220197 1.00514 0 0 1
1.00086 0.913203 0.971391 1 0 0
0.622534 0.0390815 0.0167416 0 0 -1
0.00737775 0.627715 0.579426 -1 0 0
0.00610725 0.416319 0.821815 -1 0 0
-0.00059476 0.482315 0.798102 -1 0 0
-0.0101025 0.517068 0.661482 -1 0 0
0.998183 0.776079 0.760025 1 0 0
0.0138198 0.373213 0.896084 -1 0 0
1.00731 0.621257 0.016508 1 0 0
0.110068 0.0207281 0.20299 0 -1 0
1.0054 0.383784 0.351807 1 0 0
0.545045 0.873944 0.00670094 0 0 -1
0.47223 1.0101 0.996219 0 0 1
0.966142 0.07343 1.01715 0 0 1
0.861491 0.0811844 0.00873084 0 0 -1
0.882364 -0.0135625 0.498724 0 -1 0
0.477587 0.00743478 0.126202 0 -1 0
0.821057 0.782432 0.995836 0 0 1
0.0945933 0.0174932 0.280884 0 -1 0
0.150178 0.107917 0.999278 0 0 1
0.0141081 0.482048 0.374613 -1 0 0
0.840918 0.786054 0.00263843 0 0 -1
0.543545 1.00605 0.849328 0 1 0
0.0927998 0.912711 -0.00107043 0 0 -1
0.523222 0.389171 1.00047 0 0 1
0.623026 0.571294 -0.0071395 0 0 -1
0.0692738 0.474426 0.00218802 0 0 -1
0.951744 0.992866 1.00636 0 1 0
0.000689022 0.787777 0.0113316 -1 0 0
0.00996473 0.991063 0.36553 0 1 0
0.994421 0.872461 0.184465 1 0 0
0.0122894 0.0570983 0.00592342 0 0 -1
0.260717 0.00666306 0.671627 0 -1 0
0.455487 -0.0197143 0.352562 0 -1 0
0.494484 0.977014 0.80889 0 1 0
0.681918 0.995881 0.325569 0 1 0
0.797189 0.17574 0.00296681 0 0 -1
0.00844448 0.604661 0.120347 -1 0 0
0.978667 0.612544 0.0775737 1 0 0
0.0193057 0.0152335 0.513893 0 -1 0
0.924147 0.436138 1.0142 0 0 1
0.98878 0.101373 0.97757 1 0 0
0.632568 0.995464 0.976349 0 1 0
0.000642865 0.384365 0.168901 -1 0 0
0.540708 0.128431 0.0104374 0 0 -1
0.119415 0.0136422 0.383524 0 -1 0
0.0739661 0.000637559 0.726494 0 -1 0
0.921475 0.0563439 0.0142027 0 0 -1
0.34014 1.00047 0.269598 0 1 0
0.620536 0.00116781 0.643397 0 -1 0
-5.73582e-05 0.195752 0.932346 -1 0 0
0.829965 0.00555781 0.00278254 0 -1 0
0.4198 1.0098 0.499895 0 1 0
0.0287979 0.00404585 0.0141818 0 -1 0
0.91217 0.988864 0.988065 0 0 1
1.01031 0.452245 0.374853 1 0 0
0.667858 0.142777 0.998629 0 0 1
0.418835 0.0129971 0.372254 0 -1 0
0.990812 0.0445864 0.833467 1 0 0
0.343028 0.502773 0.00305844 0 0 -1
0.61681 0.406871 1.00565 0 0 1
0.769454 -0.00141564 0.695197 0 -1 0
0.495594 0.554303 1.00156 0 0 1
0.0861729 0.60996 0.00367188 0 0 -1
0.575182 0.283117 -0.0104413 0 0 -1
0.0044607 0.930498 0.904958 -1 0 0
1.00114 0.979228 0.344976 1 0 0
0.690059 0.998467 0.228875 0 1 0
0.43027 0.220181 0.992767 0 0 1
-0.0106447 0.36933 0.935882 -1 0 0
0.549021 -0.0145847 0.951114 0 -1 0
0.734241 0.99185 0.377774 0 1 0
0.0525244 0.992393 0.682301 0 1 0
0.146381 0.0216589 1.00336 0 0 1
0.179586 1.00181 0.00535225 0 0 -1
